0.037881 0.007862 0.035665 2.815199 2.878815 4.820064 
-0.074984 0.008607 0.029836 -5.842824 -2.128472 0.528669 
0.061361 -0.014187 0.012696 6.075926 1.561652 0.297007 
-0.037285 -0.061015 0.038500 -2.659257 4.231047 -0.631216 
0.041827 0.007883 0.032552 3.663574 3.430505 3.765120 
-0.038223 0.006760 0.037628 4.026896 -2.566331 4.057444 
0.003958 0.055299 -0.011973 3.524807 2.892150 4.043661 
0.002253 0.055268 -0.010954 2.055308 4.022439 4.317631 
-0.025338 0.040515 0.007044 3.755200 -2.032814 4.582856 
0.028951 0.006295 0.038552 0.000000 0.000000 0.000000 
-0.042913 0.040938 0.036314 2.921863 3.201651 4.364016 
-0.017264 0.052238 -0.000542 1.939010 3.857511 4.462455 
-0.072793 -0.011811 0.015943 -6.238433 0.520774 -0.078626 
0.057655 -0.016182 0.030823 5.373214 1.206555 3.020230 
0.006553 0.062557 -0.020343 4.441872 2.659654 3.553634 
-0.053899 0.029576 0.048533 2.617247 2.474408 5.136117 
-0.021891 0.046457 0.006863 2.287421 0.359914 5.257097 
-0.014515 0.050892 -0.000039 0.769235 5.060401 3.439431 
0.009243 -0.006481 0.045187 -0.350290 -0.312747 6.184182 
-0.005075 0.067022 -0.012723 4.186331 -0.201861 4.678319 
-0.051508 0.014103 0.053692 3.272453 1.849385 4.991800 
-0.055012 0.047997 -0.002288 -0.699980 5.584885 2.770128 
0.002015 0.071478 -0.020049 4.548122 0.869196 4.239265 
0.056010 -0.001760 0.012702 5.349027 3.291176 0.172981 
-0.029171 0.016543 0.026059 5.706567 1.281103 2.293468 
-0.047229 0.003785 0.042158 4.292420 -4.044791 2.026310 
-0.037751 0.016761 0.038398 4.396959 1.795185 4.108787 
-0.006661 0.070003 -0.009693 4.803523 -1.881083 3.577070 
0.051279 -0.008066 0.035717 4.373892 2.564362 3.701119 
-0.004256 0.050899 -0.002787 2.304400 3.186436 4.292353 
-0.037505 0.040851 0.028223 0.000000 0.000000 0.000000 
0.051334 -0.017235 0.041017 4.315341 1.665350 4.214129 
-0.037036 0.016765 0.037661 4.128888 1.645877 4.423403 
-0.031953 0.044868 0.011591 2.301176 1.650070 5.604305 
-0.012407 0.056640 -0.005816 2.947533 2.493084 4.939086 
-0.001180 0.058184 -0.012424 2.193206 3.495534 4.693202 
0.011983 -0.006368 0.045512 -0.417851 -0.725195 6.218892 
0.005423 0.059714 -0.016922 3.182077 3.411276 4.206673 
0.023896 0.003519 0.041751 2.025747 1.880388 5.638023 
-0.026426 0.039031 0.007206 3.823358 -2.693066 4.155474 
-0.048028 -0.016262 -0.016833 -2.139552 0.741964 -5.807270 
-0.030489 0.024653 0.013550 5.685516 2.650574 -0.338183 
-0.073828 0.029053 0.017716 -5.731452 -1.528866 -1.971504 
-0.000030 0.074429 -0.017674 5.095275 0.037558 3.640561 
0.055090 -0.005511 0.028849 5.157502 2.247394 2.770751 
-0.014277 0.062568 -0.003206 4.904848 -1.975998 3.391046 
-0.051018 0.018300 0.050885 3.793531 2.852593 4.115275 
-0.038011 0.012542 0.039785 4.284592 -0.758440 4.476403 
0.027621 -0.055272 0.053864 2.179842 -1.652037 5.562740 
0.028508 -0.055259 0.053396 3.294647 -1.800221 4.946780 
0.029277 -0.055267 0.052756 3.978312 -1.878747 4.445557 
0.029998 -0.055291 0.052031 4.090807 -1.926455 4.358869 
0.030742 -0.055289 0.051352 3.992506 -1.847048 4.484305 
0.031503 -0.055301 0.050692 3.702717 -1.887922 4.702446 
0.032325 -0.055295 0.050125 2.752205 -2.084487 5.222309 
0.033285 -0.055269 0.049759 1.427207 -2.293241 5.639280 
0.034429 -0.055215 0.049660 0.698522 -2.478830 5.707690 
0.035568 -0.055154 0.049548 1.309741 -2.444997 5.532081 
0.036532 -0.055140 0.049194 2.397399 -2.412791 5.230202 
0.037417 -0.055122 0.048718 3.393443 -2.375090 4.589576 
0.038139 -0.055151 0.047997 4.024754 -2.328777 4.212430 
0.038872 -0.055137 0.047303 4.290083 -2.240543 3.959128 
0.039522 -0.055174 0.046474 4.505395 -2.293575 3.725330 
0.040183 -0.055168 0.045687 4.483469 -2.312213 3.741409 
0.040836 -0.055203 0.044861 4.196459 -2.441331 3.966956 
0.041565 -0.055182 0.044162 3.544250 -2.764027 4.334466 
0.042388 -0.055232 0.043576 2.962370 -3.132169 4.561355 
0.043265 -0.055207 0.043091 2.986954 -3.002478 4.614756 
0.044092 -0.055205 0.042529 3.367363 -2.662604 4.552931 
0.044880 -0.055167 0.041908 3.315871 -2.690735 4.600208 
0.045730 -0.055177 0.041374 2.828328 -2.761351 4.874784 
0.046613 -0.055164 0.040900 2.869459 -2.645329 4.900815 
0.047451 -0.055170 0.040358 3.263736 -2.648714 4.652274 
0.048230 -0.055189 0.039720 3.626376 -2.716205 4.350348 
0.048975 -0.055184 0.039045 3.975642 -2.791690 3.980401 
0.049666 -0.055199 0.038285 4.182129 -2.806493 3.754146 
0.050346 -0.055214 0.037515 4.288717 -2.801045 3.636913 
0.050995 -0.055268 0.036677 4.459884 -2.747015 3.466953 
0.051616 -0.055303 0.035814 4.593563 -2.601032 3.406843 
0.052240 -0.055341 0.034953 4.612777 -2.454478 3.487722 
0.052878 -0.055384 0.034106 4.518563 -2.247931 3.739806 
0.053553 -0.055399 0.033322 3.409796 -1.223643 4.866632 
0.047186 0.002595 0.033277 4.115958 2.957709 3.688207 
-0.039108 0.009672 0.039900 4.017871 -1.565560 4.558902 
0.062265 -0.019750 0.014700 6.237795 0.578382 0.474309 
-0.040703 0.009681 0.041104 2.708421 -1.929366 5.260217 
-0.041659 0.009655 0.041471 2.738560 -2.020296 5.261308 
0.062386 -0.023959 0.017704 6.239326 0.593664 0.413019 
0.045734 0.002610 0.034705 3.467804 3.008829 4.245481 
-0.050988 0.025310 0.047398 5.020954 0.906995 3.659915 
0.064406 -0.054774 0.033248 2.769967 -0.507902 5.496912 
0.065243 -0.054770 0.032717 3.438006 -0.714579 5.164134 
0.066035 -0.054781 0.032113 3.537158 -1.027027 5.083858 
0.066895 -0.054757 0.031593 3.068018 -1.249046 5.329802 
0.067785 -0.054741 0.031119 2.955925 -1.458255 5.327787 
0.068646 -0.054754 0.030622 3.052887 -1.708405 5.199227 
0.069509 -0.054726 0.030109 3.530443 -1.857825 4.777854 
0.070249 -0.054761 0.029414 4.133068 -1.946411 4.297084 
0.070973 -0.054783 0.028677 4.424004 -1.859129 4.025708 
0.071633 -0.054784 0.027887 4.761602 -1.791666 3.647952 
0.072241 -0.054803 0.027026 4.893124 -1.733677 3.519150 
0.072875 -0.054851 0.026132 4.818659 -1.599588 3.686970 
0.073513 -0.054853 0.025338 4.877299 -1.566487 3.578490 
0.074107 -0.054896 0.024415 5.072453 -1.692180 3.276931 
0.074667 -0.054927 0.023470 5.314961 -1.797703 2.783467 
0.056717 -0.013496 0.031255 5.352954 1.796185 2.736716 
0.056189 -0.013455 0.032226 5.243605 1.926404 2.858080 
-0.020102 0.047886 0.005911 1.217557 2.444064 4.491363 
0.030446 0.011735 0.035444 1.876958 3.633701 4.723649 
0.035875 0.005126 0.038015 1.748593 2.364808 5.521643 
-0.076945 0.018110 0.019781 -6.068769 1.465763 -0.699770 
-0.003887 0.058144 -0.011078 2.175104 3.256605 4.906509 
0.002698 0.071450 -0.020771 4.760798 1.246047 3.890507 
0.062380 -0.022559 0.015702 6.238059 0.565612 0.454571 
0.060657 -0.014218 0.020699 5.977132 1.767729 0.764535 
-0.057895 -0.043772 0.016049 -4.499129 -4.364444 0.073111 
0.001297 0.055254 -0.010596 1.461450 4.351174 4.289059 
-0.013780 0.049587 -0.011866 -0.227067 -3.579878 -5.121984 
0.004068 0.061155 -0.017122 2.915790 3.177701 4.564772 
0.049824 -0.000107 0.031803 4.475416 2.494422 3.631979 
-0.038258 0.036569 0.030721 5.503252 1.914779 2.165728 
0.027967 0.010322 0.037113 1.862290 2.976782 5.205538 
-0.021627 0.043456 0.005414 3.439776 -2.198871 4.772960 
-0.045901 0.038067 0.039014 0.000000 0.000000 0.000000 
-0.021042 0.046429 0.006317 3.045619 -0.601945 5.347384 
-0.033892 0.011042 0.035135 4.456395 -0.679728 4.334021 
0.001139 0.053846 -0.009043 2.243155 3.993273 4.215303 
-0.010380 0.053780 -0.004626 1.684366 4.360938 4.158579 
-0.020847 0.053675 0.001298 4.573969 -0.810620 4.056815 
-0.032518 0.011021 0.033592 5.318865 -0.123547 3.079061 
-0.040198 0.039475 0.033215 5.441491 -0.471699 3.066118 
-0.005033 0.068513 -0.012641 4.583165 -0.890254 4.171935 
0.003814 0.068504 -0.020966 4.395753 1.804093 4.108420 
0.060535 -0.014227 0.021696 5.964417 1.796034 0.781523 
-0.006047 0.070002 -0.010569 4.885561 -1.947621 3.435519 
-0.036082 0.015341 0.037290 4.502448 1.241979 4.187149 
-0.008993 0.049473 0.000917 2.500285 1.098936 4.551410 
0.044606 -0.011972 0.043595 2.379127 2.331807 5.307917 
0.049020 -0.017212 0.042936 3.578865 1.934233 4.782324 
-0.048763 0.026660 0.043616 5.453700 0.358155 3.091982 
-0.047222 0.026594 0.040492 5.634044 0.338462 2.707741 
-0.017284 0.056628 -0.002318 4.538641 -0.508125 4.120735 
-0.015785 0.056625 -0.003666 3.535438 0.942454 5.022096 
-0.029614 0.016568 0.027230 5.694819 1.212728 2.317394 
-0.058348 0.069075 -0.051472 -4.283836 2.336248 -2.629742 
0.040352 0.007861 0.033950 3.446111 3.046450 4.277874 
-0.031516 0.019481 0.029821 5.333396 1.796641 2.771766 
-0.034549 0.012480 0.035975 4.762155 -0.043723 4.067592 
-0.030985 0.019455 0.028836 5.424335 1.717776 2.551606 
-0.042228 0.033730 0.035428 5.577663 -0.822997 2.710292 
-0.006415 0.061094 -0.011201 3.050956 1.551535 5.241745 
-0.045684 0.027965 0.037450 4.533514 0.295362 3.726794 
-0.034095 0.016744 0.034875 4.437184 0.789651 4.343220 
-0.032737 0.016723 0.033324 5.013454 1.027032 3.566118 
-0.032159 0.016700 0.032427 5.293153 1.122847 3.139992 
-0.030076 0.019400 0.026573 5.596527 1.818195 2.148828 
0.027792 -0.053868 0.054117 2.114520 -0.345482 5.727834 
0.028684 -0.053861 0.053665 3.312410 -0.583067 5.139258 
0.029459 -0.053867 0.053032 3.980717 -0.701917 4.744472 
0.030219 -0.053871 0.052367 4.086587 -0.887814 4.629725 
0.030971 -0.053876 0.051700 4.079078 -1.137265 4.589250 
0.031700 -0.053900 0.050997 3.648699 -1.425575 4.878942 
0.032576 -0.053884 0.050507 2.388361 -1.606916 5.561617 
0.033588 -0.053847 0.050217 1.150081 -1.653421 5.934245 
0.034731 -0.053795 0.050117 0.739928 -1.584190 6.010550 
0.035823 -0.053756 0.049954 1.495672 -1.613467 5.826163 
0.036800 -0.053741 0.049609 2.607786 -1.627806 5.401412 
0.037656 -0.053713 0.049078 3.568197 -1.615589 4.873131 
0.038415 -0.053718 0.048420 4.146480 -1.725582 4.370092 
0.039129 -0.053737 0.047684 4.393896 -1.743231 4.124021 
0.039805 -0.053744 0.046908 4.554457 -1.815076 3.923448 
0.040477 -0.053745 0.046130 4.462618 -1.928623 3.975270 
0.041161 -0.053749 0.045358 3.928697 -2.164190 4.356169 
0.041983 -0.053739 0.044785 3.071971 -2.548750 4.842332 
0.042856 -0.053765 0.044281 3.041149 -2.716915 4.750724 
0.043658 -0.053799 0.043676 3.600217 -2.625870 4.406564 
0.044407 -0.053790 0.042999 3.694609 -2.434004 4.455772 
0.045208 -0.053771 0.042400 3.338428 -2.293044 4.800044 
0.046049 -0.053777 0.041860 3.010492 -2.275271 5.022286 
0.046926 -0.053754 0.041372 2.950171 -2.275002 5.057106 
0.047798 -0.053726 0.040871 3.118526 -2.275691 4.946521 
0.048629 -0.053726 0.040320 3.394186 -2.426890 4.674006 
0.049407 -0.053744 0.039689 3.791858 -2.655580 4.215104 
0.050121 -0.053717 0.038981 4.201448 -2.760795 3.744212 
0.050766 -0.053752 0.038155 4.356321 -2.748414 3.595822 
0.051422 -0.053789 0.037330 4.496149 -2.739374 3.417178 
0.052018 -0.053854 0.036403 4.759690 -2.632493 3.141030 
0.052598 -0.053869 0.035513 4.844264 -2.361304 3.226909 
0.053193 -0.053938 0.034582 4.764172 -2.182659 3.463370 
0.053825 -0.053978 0.033737 4.422197 -1.943711 3.991217 
0.054563 -0.053979 0.033028 2.831551 -0.909435 5.231380 
0.056457 -0.025847 -0.011228 5.161989 -0.433178 -3.509616 
-0.045400 0.045103 -0.031061 5.979853 -1.593761 -1.073390 
-0.000697 0.076236 -0.017066 4.654046 2.209428 3.297046 
0.053110 -0.015972 0.038349 4.774262 1.868635 3.604427 
-0.001426 0.069988 -0.016215 4.475623 0.338612 4.383414 
-0.069856 0.004721 0.047614 -3.103437 -3.479759 4.205952 
0.015748 -0.006206 0.045710 0.325975 0.171040 6.192960 
-0.031484 0.013813 0.031529 5.197506 -0.450779 3.473361 
0.065257 -0.053407 0.032762 2.936155 0.026895 5.536434 
0.066127 -0.053390 0.032249 3.141616 -0.415717 5.418475 
0.067008 -0.053375 0.031765 2.832786 -0.772173 5.552017 
0.067916 -0.053365 0.031332 2.701013 -0.998769 5.578948 
0.068825 -0.053356 0.030895 2.910646 -1.108567 5.431845 
0.069696 -0.053337 0.030393 3.487901 -1.112783 5.045771 
0.070471 -0.053345 0.029752 4.159819 -1.255821 4.494572 
0.071185 -0.053365 0.029015 4.573543 -1.315819 4.057162 
0.071832 -0.053392 0.028177 4.944364 -1.293621 3.636798 
0.072434 -0.053407 0.027305 5.088461 -1.166504 3.485367 
0.073040 -0.053453 0.026393 5.052319 -1.093296 3.567815 
0.073661 -0.053474 0.025538 4.932603 -1.061828 3.742389 
0.074286 -0.053496 0.024686 4.996062 -1.279854 3.587841 
0.074918 -0.053550 0.023771 5.299340 -1.432474 2.995497 
0.046712 -0.013265 0.043130 3.445277 2.098060 4.802247 
-0.008480 0.047981 -0.000118 3.250377 -3.108314 4.303061 
-0.031623 0.039061 0.012004 4.385339 -0.983625 4.365825 
0.011789 -0.007737 0.045345 -0.118891 0.878449 6.062211 
-0.045751 0.011146 0.046280 5.696733 -0.493140 2.588837 
0.002389 0.056768 -0.012520 1.840775 4.229042 4.258243 
-0.045323 0.054498 -0.052044 6.205817 -0.833501 0.489224 
-0.049935 0.014099 0.052457 4.110476 1.976088 4.261353 
-0.014116 0.056640 -0.004772 3.245742 1.672570 5.072996 
-0.041423 0.011076 0.041833 2.853708 -1.643780 5.343289 
-0.011854 0.065544 -0.004942 4.925491 -1.779404 3.470179 
-0.001597 0.055218 -0.009531 1.582804 4.383887 4.209835 
-0.030089 0.016597 0.028313 5.629124 1.003331 2.563246 
-0.025365 0.037699 0.001904 2.755038 -5.624217 0.200966 
-0.038779 0.036589 0.031710 5.020910 1.705893 3.252341 
-0.019994 0.043475 0.004259 3.431875 -2.431771 4.660003 
-0.033653 0.037640 0.014378 5.489450 -0.374676 3.020217 
-0.042407 0.038094 0.037049 4.721407 0.584852 3.869045 
-0.009932 0.046466 -0.000485 2.891023 -4.298147 3.479968 
-0.009128 0.046510 -0.001070 2.825381 -4.492948 3.204159 
-0.008429 0.046479 -0.001832 2.827616 -4.805418 2.770146 
-0.001110 0.065553 -0.015810 3.549698 1.132693 5.020923 
-0.028857 0.047784 0.009043 4.050658 0.092915 4.757021 
0.003600 0.053894 -0.010774 3.987646 2.554395 3.965612 
0.026771 0.003560 0.040628 2.117256 1.915663 5.592933 
-0.023762 0.050728 0.004108 4.320532 -0.146884 4.323458 
0.003101 0.068523 -0.020261 4.299278 1.697745 4.249701 
-0.032880 0.020908 0.031422 4.977766 2.194345 2.994748 
-0.005430 0.070001 -0.011443 4.931645 -1.894750 3.397616 
-0.045702 0.033768 0.039279 3.369852 -0.341373 5.281878 
-0.009888 0.049472 0.001376 2.183201 1.370107 4.589866 
0.056936 -0.014817 0.031566 5.461953 1.393121 2.768199 
-0.047703 0.026617 0.041575 5.631917 0.194120 2.775775 
-0.048227 0.026639 0.042632 5.565005 0.296276 2.893687 
-0.046721 0.026570 0.039491 5.320820 0.815954 3.100858 
-0.043780 0.026558 0.036714 2.570273 3.166651 4.705811 
-0.042844 0.026539 0.036306 2.440228 3.446471 4.640417 
-0.040298 0.026558 0.034726 3.119148 3.163855 4.426739 
-0.039522 0.026576 0.034085 3.546395 3.053238 4.181531 
-0.038772 0.026573 0.033413 3.734859 2.969457 4.059902 
-0.034868 0.020969 0.033778 4.157252 2.469090 4.004820 
-0.017021 0.058104 -0.001958 5.023773 -2.064646 3.142259 
0.038759 0.007854 0.035172 2.949075 3.020886 4.629822 
0.056069 -0.001800 0.010703 0.000000 0.000000 0.000000 
-0.034148 0.020944 0.033079 4.374278 2.172164 3.888233 
-0.033390 0.016731 0.034169 4.630697 0.835929 4.055408 
-0.002587 0.059653 -0.012694 2.519183 2.805054 4.987573 
0.000148 0.068514 -0.017491 4.105190 1.209451 4.579311 
-0.041791 0.020985 0.039590 2.680117 2.632301 5.036429 
-0.042682 0.020983 0.040063 2.510757 2.622260 5.124181 
0.027710 -0.052511 0.054015 0.000000 0.000000 0.000000 
0.028650 -0.052490 0.053617 3.096608 0.517127 5.368141 
0.029447 -0.052494 0.053023 3.873067 0.488494 4.902558 
0.030227 -0.052488 0.052391 3.945037 0.390410 4.854068 
0.031003 -0.052502 0.051763 3.687081 0.082934 5.078218 
0.031842 -0.052489 0.051202 3.181051 -0.607406 5.367115 
0.032738 -0.052478 0.050744 2.228720 -0.996270 5.769788 
0.033757 -0.052444 0.050460 1.097019 -1.034317 6.078739 
0.034905 -0.052392 0.050373 0.792134 -0.850268 6.152696 
0.035997 -0.052355 0.050217 1.541218 -0.807176 5.949966 
0.036959 -0.052333 0.049854 2.600445 -0.985807 5.582725 
0.037838 -0.052314 0.049358 3.515930 -1.142796 5.013551 
0.038606 -0.052321 0.048705 4.140424 -1.162539 4.551348 
0.039323 -0.052343 0.047973 4.415543 -1.329209 4.262531 
0.040023 -0.052358 0.047222 4.543051 -1.427333 4.090271 
0.040693 -0.052365 0.046440 4.367879 -1.546937 4.232347 
0.041433 -0.052360 0.045756 3.572727 -1.824492 4.790622 
0.042327 -0.052347 0.045284 2.804336 -2.107263 5.192783 
0.043200 -0.052366 0.044787 3.131047 -2.259259 4.919955 
0.044002 -0.052350 0.044193 3.775287 -2.262379 4.457614 
0.044747 -0.052347 0.043513 4.015522 -2.063291 4.351169 
0.045493 -0.052343 0.042834 3.584340 -1.903881 4.780100 
0.046342 -0.052349 0.042296 3.103112 -1.802659 5.147623 
0.047218 -0.052329 0.041809 3.087702 -1.714392 5.168762 
0.048062 -0.052336 0.041271 3.167484 -1.811417 5.107234 
0.048909 -0.052342 0.040742 3.219532 -2.051231 4.982316 
0.049732 -0.052337 0.040166 3.682863 -2.186548 4.577041 
0.050485 -0.052337 0.039497 4.172300 -2.254719 4.077652 
0.051147 -0.052331 0.038715 4.459006 -2.381802 3.723992 
0.051811 -0.052371 0.037895 4.532380 -2.387793 3.621661 
0.052446 -0.052396 0.037053 4.874800 -2.379611 3.079568 
0.052950 -0.052445 0.036011 5.092643 -2.316469 2.854821 
0.053498 -0.052490 0.035048 4.953199 -2.121685 3.221485 
0.054116 -0.052526 0.034181 4.808034 -1.874604 3.578770 
0.054766 -0.052567 0.033340 4.260755 -1.362434 4.359540 
-0.051106 0.026728 0.047258 4.826168 0.964956 3.874817 
-0.050476 0.026716 0.046391 5.116999 0.798068 3.539503 
-0.047781 0.012655 0.050275 5.234103 0.987370 3.295872 
-0.048406 0.012671 0.051143 4.997330 1.125082 3.633567 
-0.049035 0.012684 0.052003 4.753489 1.284094 3.870046 
-0.049725 0.012693 0.052762 4.088341 1.207476 4.541972 
-0.049876 0.026699 0.045503 5.258691 0.632738 3.354851 
-0.049311 0.026681 0.044533 5.390754 0.475092 3.190194 
-0.019631 0.041969 0.002994 3.519742 -3.420906 3.881981 
0.066166 -0.052018 0.032307 2.637883 -0.262288 5.693428 
0.067080 -0.052001 0.031892 2.560911 -0.505284 5.712487 
0.068021 -0.051976 0.031489 2.631955 -0.561933 5.663850 
0.068917 -0.051963 0.031036 3.031381 -0.515924 5.464395 
0.069771 -0.051963 0.030517 3.480628 -0.493998 5.191720 
0.070578 -0.051958 0.029921 4.026295 -0.703737 4.740635 
0.071300 -0.051976 0.029194 4.535529 -0.900376 4.249067 
0.071975 -0.051986 0.028420 4.959079 -1.004316 3.692855 
0.072561 -0.052024 0.027493 5.173658 -1.020226 3.415351 
0.073155 -0.052065 0.026576 5.085982 -1.066354 3.522443 
0.073771 -0.052085 0.025708 4.847651 -1.044568 3.828679 
0.074454 -0.052094 0.024948 4.815260 -1.039532 3.883793 
0.075085 -0.052120 0.024101 5.215149 -1.138874 3.241750 
0.075597 -0.052162 0.023073 0.000000 0.000000 0.000000 
0.053447 -0.014663 0.037055 4.941221 2.249337 3.144253 
0.049574 -0.015890 0.041982 3.798424 1.973948 4.599187 
-0.033046 0.039079 0.013446 4.905242 0.327683 3.889837 
-0.046169 0.011174 0.047396 5.774440 -0.213539 2.392107 
-0.002146 0.069992 -0.015511 4.535926 0.040484 4.310603 
0.004275 0.053887 -0.011556 4.755260 1.591835 3.599955 
-0.018334 0.050768 0.001423 1.046615 4.972908 3.520597 
-0.011236 0.059591 -0.007627 3.585925 0.913690 5.018422 
0.061278 -0.014181 0.013699 6.068405 1.573694 0.407166 
-0.010611 0.065531 -0.006682 4.868391 -2.104301 3.365640 
-0.002619 0.055261 -0.009231 1.595236 4.317243 4.259948 
-0.003534 0.055214 -0.008812 1.690996 4.227629 4.322595 
-0.044629 0.026538 0.037246 2.994385 2.714158 4.757931 
-0.039430 0.036603 0.032504 4.643400 1.382141 3.985630 
-0.030413 0.037584 0.010228 4.156672 -2.273594 4.080976 
0.049405 -0.011977 0.040013 3.974823 2.667334 4.063215 
-0.035922 0.005297 0.035646 1.950311 1.719367 5.564984 
0.054710 -0.009468 0.031860 5.049540 2.078284 3.106427 
-0.054648 0.019669 0.052679 2.577925 2.076396 5.333192 
-0.049443 0.004093 0.047869 4.163398 -4.153695 2.053200 
-0.039999 0.035175 0.033463 4.124873 0.499065 4.643595 
-0.028110 0.047780 0.008370 4.334565 -0.613112 4.494371 
-0.007674 0.047990 -0.000711 3.199021 -3.280594 4.184699 
-0.036665 0.026547 0.031196 4.370245 3.176065 3.194047 
0.041187 -0.008031 0.043940 3.215700 2.805232 4.577177 
0.004495 0.068504 -0.021737 4.537930 1.906999 3.903343 
0.022356 0.000782 0.043040 2.042997 1.211665 5.791300 
-0.065876 -0.001325 0.001833 -5.608528 1.097602 -2.599244 
-0.023551 0.052202 0.004412 4.851782 -1.671817 3.621330 
-0.015592 0.049351 0.003620 1.317732 3.699110 4.208878 
-0.049877 0.016909 0.050763 4.121160 2.630839 3.935753 
-0.045775 0.032334 0.039162 3.951872 -0.857140 4.797201 
-0.043326 0.027968 0.035616 2.952401 1.704678 5.025222 
-0.046797 0.020969 0.042884 4.505885 2.614132 3.509654 
-0.047426 0.020972 0.043748 4.672092 2.699046 3.218025 
-0.048031 0.020993 0.044629 4.803973 2.628991 3.072731 
0.043567 0.003884 0.035084 2.310066 3.524039 4.643958 
-0.052497 0.021101 0.050504 4.000350 2.032553 4.383026 
-0.053247 0.021111 0.051185 3.791458 2.066954 4.557986 
-0.054037 0.021091 0.051812 3.305336 2.003393 4.940287 
-0.035232 0.012492 0.036748 4.823559 -0.157413 3.996564 
-0.029972 0.043446 0.010933 3.298085 0.961279 5.211222 
-0.051790 0.026738 0.048033 4.398736 1.240166 4.278982 
0.041393 -0.000095 0.038966 1.642290 3.418206 5.007360 
-0.077106 0.012628 0.015819 -6.143061 0.415713 -1.107980 
-0.027504 0.041988 0.009219 3.478502 -0.910301 5.142221 
-0.032074 0.010992 0.032505 5.797852 0.481199 2.317229 
0.025662 -0.051233 0.054573 2.349684 -1.424710 5.609413 
-0.018897 0.041989 0.002300 3.503150 -3.872037 3.432145 
-0.038012 0.039423 0.029228 5.481681 -0.176117 3.043838 
0.028549 -0.051165 0.053496 3.297869 0.590765 5.275684 
0.029335 -0.051159 0.052865 3.820300 0.703441 4.930888 
0.030126 -0.051164 0.052254 3.653642 0.368291 5.072881 
0.030965 -0.051165 0.051719 3.006903 -0.107460 5.486691 
0.031900 -0.051136 0.051302 2.504175 -0.621790 5.727561 
0.032846 -0.051110 0.050904 1.967088 -0.911979 5.878764 
0.033871 -0.051080 0.050640 1.364626 -0.718194 6.082406 
0.034950 -0.051038 0.050438 1.090046 -0.236482 6.180221 
0.036041 -0.050998 0.050289 1.372738 -0.154942 6.087146 
0.037058 -0.050963 0.049997 2.329111 -0.215643 5.729890 
0.037955 -0.050952 0.049541 3.407639 -0.521090 5.105179 
0.038691 -0.050970 0.048841 4.132753 -0.722132 4.674714 
0.039464 -0.050961 0.048200 4.273787 -0.767276 4.508537 
0.040173 -0.050978 0.047461 4.477164 -0.892069 4.303696 
0.040872 -0.050994 0.046713 4.235706 -1.184570 4.474874 
0.041629 -0.050996 0.046049 3.334627 -1.529522 5.033302 
0.042555 -0.050962 0.045631 2.630556 -1.648473 5.455907 
0.043466 -0.050955 0.045190 2.969110 -1.800454 5.200668 
0.044288 -0.050989 0.044618 3.927127 -1.908026 4.427707 
0.044972 -0.050958 0.043854 4.390212 -1.773501 4.126941 
0.045684 -0.050981 0.043123 3.854838 -1.544978 4.680432 
0.046508 -0.050977 0.042555 3.332106 -1.328942 5.152439 
0.047378 -0.050952 0.042049 3.033676 -1.273999 5.350933 
0.048272 -0.050940 0.041587 2.770085 -1.484262 5.433944 
0.049184 -0.050936 0.041151 2.925531 -1.775845 5.223462 
0.050017 -0.050934 0.040599 3.724468 -1.886804 4.630625 
0.050741 -0.050959 0.039877 4.239676 -1.843749 4.248233 
0.051444 -0.050941 0.039163 4.455230 -1.882635 3.988389 
0.052106 -0.050975 0.038345 4.668642 -1.975555 3.700282 
0.052735 -0.050999 0.037500 4.904644 -2.011551 3.345721 
0.053285 -0.051059 0.036496 5.129020 -2.200935 2.884780 
0.053820 -0.051078 0.035534 5.141840 -2.165261 2.888014 
0.054364 -0.051123 0.034564 5.100617 -1.901575 3.134848 
0.054939 -0.051181 0.033616 4.900090 -1.514301 3.589971 
0.055620 -0.051201 0.032843 4.190380 -0.699659 4.584887 
-0.038286 -0.062320 0.041587 0.000000 0.000000 0.000000 
0.015395 -0.003487 0.045248 1.506929 1.584911 5.882161 
-0.046850 0.014010 0.048154 5.433249 1.059712 2.960285 
-0.046322 0.013983 0.047165 5.447309 0.877551 3.000874 
-0.045752 0.013966 0.046197 5.321375 0.788364 3.228520 
-0.045161 0.013946 0.045299 5.219619 0.745497 3.366871 
-0.031830 0.037590 0.011686 4.636498 -1.883165 3.785481 
0.062352 -0.023963 0.018703 6.237029 0.571669 0.407818 
-0.076123 0.011369 0.035818 -6.219396 0.485476 -0.723500 
-0.055298 0.018266 0.053515 0.000000 0.000000 0.000000 
0.068062 -0.050630 0.031549 2.618603 0.076894 5.680172 
0.068953 -0.050616 0.031090 3.044041 0.021775 5.475365 
0.069808 -0.050609 0.030581 3.333716 -0.109944 5.307080 
0.070643 -0.050604 0.030029 3.746890 -0.281197 4.993668 
0.071404 -0.050611 0.029362 4.370417 -0.549179 4.450239 
0.072095 -0.050625 0.028600 4.840730 -0.810158 3.885544 
0.072695 -0.050666 0.027684 5.077974 -1.116565 3.519308 
0.073306 -0.050687 0.026821 4.966007 -1.264525 3.628816 
0.073945 -0.050710 0.025978 4.927014 -1.306475 3.673325 
0.074573 -0.050735 0.025127 4.962758 -1.082505 3.694497 
0.075200 -0.050758 0.024277 5.194561 -0.829378 3.413013 
0.075749 -0.050786 0.023328 5.559646 -0.853282 2.750874 
0.048555 -0.014591 0.042283 3.727772 2.081859 4.597916 
-0.040445 0.015379 0.041526 3.038711 1.484815 5.253595 
-0.013083 0.062573 -0.004985 4.896596 -2.227081 3.243937 
0.056612 -0.016110 0.032840 5.550220 1.072161 2.717320 
-0.038048 0.026593 0.032679 3.918526 2.953503 3.880738 
-0.056507 0.019647 0.053512 2.479805 1.661194 5.525670 
-0.023542 0.041973 0.006144 3.633927 -2.209381 4.620063 
0.056433 -0.012175 0.030848 5.225777 2.077891 2.788867 
0.054568 -0.017312 0.036846 5.118311 1.361545 3.371518 
0.023304 0.000794 0.042649 2.446428 0.959508 5.698109 
-0.010014 0.065534 -0.007569 4.909891 -2.091963 3.314863 
-0.004495 0.055225 -0.008437 1.742905 4.110888 4.417588 
0.048753 -0.006715 0.037311 3.646537 2.489334 4.467938 
-0.040134 0.036604 0.033264 4.412681 0.957733 4.347147 
-0.030824 0.043436 0.011456 3.081025 1.037727 5.334260 
0.005704 0.061154 -0.018259 3.665279 3.128992 3.997195 
-0.042513 0.030843 0.035040 4.341386 -0.446709 4.389564 
-0.053325 0.033782 0.045846 1.966068 3.455055 4.841922 
0.039797 -0.011963 0.047199 2.837306 2.504538 4.997727 
-0.038228 0.011127 0.039487 4.262696 -1.461386 4.372209 
0.062334 -0.022564 0.016699 6.238125 0.605812 0.427772 
0.043857 0.005224 0.033748 2.618895 3.899476 4.168714 
-0.051092 0.035195 0.043802 0.000000 0.000000 0.000000 
-0.018731 0.055154 -0.000919 4.499838 0.005701 4.101995 
-0.039911 0.028006 0.033518 3.637314 1.581742 4.739697 
0.005155 0.068492 -0.022522 4.717007 2.025804 3.618235 
-0.070809 -0.014671 0.006944 -5.753555 -1.206179 -1.805213 
-0.022950 0.052200 0.003526 4.956329 -1.446055 3.534662 
-0.017603 0.049298 0.004191 0.442137 4.237078 4.139110 
0.062670 -0.021131 0.009707 6.265110 0.374034 -0.055534 
-0.047213 0.032337 0.040561 4.753317 0.337321 4.071789 
-0.048172 0.025216 0.042600 5.560792 0.376034 2.893193 
-0.075668 0.011331 0.030821 -6.193667 -0.899173 0.395994 
0.061793 -0.015558 0.007705 6.090225 1.454294 -0.505670 
-0.056729 0.021061 0.053201 2.920399 1.511315 5.349573 
0.045286 0.003899 0.034060 3.136869 3.571676 4.033447 
0.044426 0.003934 0.034577 2.625167 3.620114 4.392381 
0.057182 -0.004514 0.017704 5.684285 2.622292 0.522988 
0.061715 -0.018400 0.003723 6.063507 1.164967 -1.149417 
0.053265 -0.026104 -0.015190 4.359176 -0.103052 -4.503591 
-0.056286 0.043897 -0.031364 -6.079628 1.388307 -0.667247 
-0.051262 0.028151 0.047040 4.653202 1.284879 3.982838 
0.008964 -0.004223 -0.021235 -0.118242 0.762727 -6.228581 
-0.017576 0.058110 -0.000994 4.983713 -2.201169 3.122919 
0.023225 -0.049873 0.056320 2.763498 -2.639319 4.976937 
0.024130 -0.049871 0.055888 2.185436 -2.727355 5.218306 
0.025084 -0.049861 0.055522 2.615337 -2.660847 4.999276 
0.025862 -0.049869 0.054894 3.390459 -2.172912 4.712445 
0.026694 -0.049865 0.054336 2.799845 -1.575038 5.194683 
0.027616 -0.049830 0.053906 3.148998 -0.643057 5.318038 
0.028478 -0.049834 0.053403 3.568437 0.061260 5.145860 
0.029226 -0.049837 0.052721 3.525895 -0.151253 4.952139 
0.030111 -0.049822 0.052240 2.954066 -0.653316 5.424456 
0.031010 -0.049812 0.051792 2.407658 -1.202960 5.591849 
0.031973 -0.049794 0.051436 2.133399 -1.359800 5.715865 
0.032970 -0.049751 0.051110 2.063674 -1.259803 5.790412 
0.033926 -0.049732 0.050746 2.036786 -0.755043 5.865903 
0.034937 -0.049696 0.050433 1.713642 0.049378 6.012858 
0.036015 -0.049655 0.050245 1.426227 0.654070 6.038465 
0.036991 -0.049630 0.049922 2.161947 0.565324 5.857931 
0.037951 -0.049605 0.049551 2.911042 0.423243 5.438397 
0.038772 -0.049603 0.048971 3.858962 -0.059539 4.898695 
0.039522 -0.049609 0.048297 4.302581 -0.345062 4.546982 
0.040232 -0.049624 0.047556 4.443774 -0.389210 4.423203 
0.040966 -0.049629 0.046862 3.876055 -0.399332 4.905246 
0.041809 -0.049628 0.046325 3.022760 -0.823451 5.429222 
0.042725 -0.049619 0.045897 2.529585 -1.071022 5.638560 
0.043667 -0.049592 0.045498 2.896579 -1.161075 5.377618 
0.044501 -0.049593 0.044948 3.874097 -1.272439 4.669548 
0.045197 -0.049605 0.044190 4.533077 -1.485469 4.079298 
0.045878 -0.049615 0.043412 4.239535 -1.341976 4.416896 
0.046654 -0.049595 0.042782 3.574938 -1.011020 5.055432 
0.047513 -0.049597 0.042256 2.969841 -1.067565 5.428147 
0.048416 -0.049595 0.041813 2.480607 -1.257016 5.629353 
0.049377 -0.049572 0.041448 2.790341 -1.339777 5.410573 
0.050219 -0.049574 0.040907 3.704042 -1.376620 4.826990 
0.050954 -0.049568 0.040213 4.309831 -1.545073 4.295190 
0.051656 -0.049585 0.039465 4.470289 -1.526275 4.139839 
0.052341 -0.049596 0.038705 4.695106 -1.529183 3.863050 
0.052978 -0.049618 0.037862 4.846133 -1.547760 3.678268 
0.053608 -0.049639 0.037017 4.992100 -1.783622 3.314885 
0.054150 -0.049667 0.036061 5.241961 -2.029297 2.778980 
0.054642 -0.049733 0.034964 5.260448 -1.951836 2.816436 
0.055196 -0.049780 0.034004 5.198411 -1.810420 3.027701 
0.055730 -0.049827 0.033020 4.944362 -1.373123 3.533238 
0.056415 -0.049856 0.032237 4.176460 -0.378455 4.575435 
0.057196 -0.049865 0.031608 1.991587 1.262436 5.327564 
-0.027620 0.037569 0.007227 3.795798 -3.513991 3.506664 
-0.044938 0.016760 0.043817 4.199666 2.217165 4.092725 
-0.045612 0.016775 0.044597 4.797042 2.247784 3.354306 
-0.046188 0.016755 0.045612 5.002617 2.211291 3.042940 
-0.046765 0.016789 0.046514 5.033904 2.309915 2.942223 
-0.047321 0.016803 0.047487 4.991257 2.398885 2.930198 
-0.042283 0.005246 0.038733 1.539037 -3.676871 4.807358 
-0.032165 0.012395 0.032306 5.608078 0.087275 2.710145 
0.067992 -0.049296 0.031464 0.000000 0.000000 0.000000 
0.068902 -0.049280 0.031032 2.811602 0.576798 5.576527 
0.069788 -0.049265 0.030562 3.180933 0.431290 5.373380 
0.070625 -0.049260 0.030011 3.562870 0.329001 5.151567 
0.071427 -0.049259 0.029412 4.048294 0.070583 4.770795 
0.072157 -0.049273 0.028697 4.529971 -0.302541 4.333650 
0.072844 -0.049292 0.027933 4.805986 -0.677379 3.958078 
0.073494 -0.049317 0.027102 4.914779 -0.973732 3.763780 
0.074120 -0.049339 0.026248 5.032012 -1.031003 3.596182 
0.074727 -0.049360 0.025381 5.173790 -0.844453 3.419862 
0.075300 -0.049393 0.024446 5.365183 -0.613648 3.182327 
0.075828 -0.049425 0.023488 5.637579 -0.410101 2.677221 
0.055882 -0.014756 0.033568 5.151756 1.664350 3.153590 
-0.046145 0.026564 0.038540 4.765884 1.466768 3.529890 
0.051900 -0.013310 0.038347 4.575279 2.259877 3.661062 
0.048508 -0.000078 0.033423 4.555406 2.299792 3.659941 
-0.009274 0.047991 0.000492 3.006660 -2.882551 4.552644 
-0.036725 0.022392 0.034600 3.926501 2.680233 4.095397 
-0.012036 0.059594 -0.007026 3.864090 0.588335 4.859468 
-0.052168 0.012691 0.054488 2.582757 0.819040 5.566208 
0.056143 -0.008204 0.028608 0.000000 0.000000 0.000000 
0.055636 -0.008195 0.029718 5.215217 1.694927 2.997080 
-0.008096 0.065527 -0.010088 4.519709 -1.298407 4.114456 
-0.005461 0.055223 -0.008076 1.803983 4.065982 4.421676 
-0.049133 0.020991 -0.007185 0.510213 0.978824 -6.164508 
-0.040878 0.036604 0.033891 4.388411 0.353436 4.365991 
-0.054282 0.030982 0.047989 0.000000 0.000000 0.000000 
0.058551 -0.011521 0.025704 5.427895 2.435574 2.016986 
-0.053338 0.026760 0.049323 3.548549 1.785022 4.859436 
-0.048710 0.002321 0.041782 3.705492 -4.735529 1.738089 
-0.066323 -0.001307 0.002865 -5.283856 1.277815 -2.962466 
-0.030480 0.012333 0.029470 5.058966 0.056060 3.646925 
-0.033886 0.012461 0.035140 4.757557 0.133587 4.097363 
0.024860 0.003539 0.041397 2.154934 1.943642 5.555632 
-0.046200 0.038864 -0.018043 5.810352 -2.291046 -0.618478 
0.062271 -0.021168 0.004713 6.203704 0.267274 -0.891075 
-0.031054 0.012347 0.030421 5.363471 -0.746419 3.178224 
0.005767 0.068494 -0.023390 5.034004 2.053217 3.138358 
-0.077455 0.009969 0.020826 -6.136066 -1.260709 -0.004556 
-0.022328 0.052200 0.002664 4.406296 -0.259453 4.141990 
-0.019037 0.049352 0.003946 -0.547542 4.772731 3.974102 
0.057464 -0.014848 0.030528 5.395954 1.515725 2.837707 
-0.047835 0.032353 0.041429 5.022524 0.656315 3.706429 
-0.052715 0.004124 0.051828 0.000000 0.000000 0.000000 
0.054550 -0.014647 -0.008305 4.653404 1.454889 -3.894967 
-0.037097 0.027990 0.030505 4.885523 1.841905 3.343781 
-0.071438 -0.007850 0.010940 -5.845490 1.767417 -1.322176 
-0.044303 0.059227 -0.056064 6.136958 0.104745 0.940686 
-0.044758 0.046713 -0.021050 6.262211 0.262937 0.344350 
-0.038400 0.028011 0.032162 4.448852 1.718914 4.007082 
-0.026943 0.037565 0.006449 3.964041 -3.952097 2.577171 
-0.054995 -0.034405 0.038456 -3.283733 -2.706527 4.609264 
-0.051983 0.028146 0.047777 4.062510 1.465008 4.532351 
-0.036238 0.009640 0.037020 4.273506 -1.890435 4.193618 
-0.041946 0.008230 0.041035 2.414305 -2.845943 5.012311 
0.062519 -0.021144 0.007711 6.260395 0.192300 -0.419550 
-0.034805 0.009622 0.035571 4.151576 -1.817688 4.344910 
0.024502 -0.048479 0.056451 2.014190 -2.257033 5.476402 
0.025446 -0.048451 0.056063 2.605318 -2.397245 5.161116 
0.026305 -0.048462 0.055550 3.299348 -2.655587 4.583968 
0.027068 -0.048465 0.054892 3.868513 -2.373881 4.304461 
0.027769 -0.048470 0.054168 4.284727 -1.590097 4.298518 
0.028503 -0.048477 0.053446 3.524267 -1.258447 4.870940 
0.029361 -0.048487 0.052940 2.724803 -1.783581 5.244519 
0.030305 -0.048459 0.052547 2.174090 -2.330251 5.361917 
0.031298 -0.048412 0.052213 2.237895 -2.336013 5.378672 
0.032210 -0.048413 0.051795 2.411957 -1.997035 5.435570 
0.033155 -0.048383 0.051398 2.602489 -1.639417 5.472475 
0.034046 -0.048370 0.050930 2.857485 -1.120955 5.462306 
0.034942 -0.048368 0.050441 2.793833 -0.615458 5.541378 
0.035866 -0.048329 0.050030 2.160753 0.423760 5.794396 
0.036894 -0.048299 0.049771 1.948212 1.082304 5.849945 
0.037845 -0.048277 0.049392 2.627517 1.051400 5.570305 
0.038736 -0.048262 0.048924 3.277900 0.751589 5.221938 
0.039522 -0.048263 0.048306 4.027582 0.372752 4.782389 
0.040270 -0.048273 0.047626 4.382695 0.002271 4.478923 
0.040972 -0.048286 0.046880 3.756435 -0.170203 4.941921 
0.041864 -0.048272 0.046418 2.675207 -0.278067 5.673337 
0.042811 -0.048250 0.046030 2.416537 -0.329275 5.776111 
0.043754 -0.048227 0.045632 2.901510 -0.331272 5.499460 
0.044596 -0.048224 0.045098 3.670112 -0.511499 5.022213 
0.045352 -0.048227 0.044429 4.350723 -0.875124 4.418477 
0.046043 -0.048240 0.043668 4.480639 -1.160380 4.247175 
0.046754 -0.048260 0.042933 3.674517 -1.110348 4.888430 
0.047633 -0.048242 0.042449 2.795826 -1.015686 5.526660 
0.048575 -0.048216 0.042053 2.511513 -0.812485 5.684963 
0.049500 -0.048210 0.041644 2.947038 -0.735229 5.448384 
0.050334 -0.048208 0.041087 3.547112 -0.914722 5.098053 
0.051133 -0.048198 0.040485 4.111949 -1.163040 4.571591 
0.051839 -0.048213 0.039742 4.513907 -1.337478 4.156441 
0.052515 -0.048222 0.038970 4.755932 -1.334833 3.873273 
0.053143 -0.048246 0.038121 4.901550 -1.295760 3.711163 
0.053782 -0.048269 0.037282 4.918179 -1.262225 3.699621 
0.054411 -0.048291 0.036437 5.139024 -1.434508 3.255611 
0.054932 -0.048339 0.035414 5.310597 -1.824319 2.813475 
0.055448 -0.048384 0.034386 5.204532 -1.963450 2.911378 
0.055992 -0.048430 0.033417 5.260291 -1.836231 2.898495 
0.056538 -0.048479 0.032444 5.079200 -1.100747 3.481225 
0.057155 -0.048522 0.031560 0.000000 0.000000 0.000000 
0.062710 -0.023941 0.012704 6.240835 0.582815 0.432905 
0.045871 -0.013281 0.043666 2.772872 2.281904 5.137061 
-0.045329 0.018144 0.043262 3.879587 2.822235 4.013968 
-0.044519 0.018138 0.042677 3.145925 2.795682 4.651126 
-0.043665 0.018160 0.042150 2.545455 2.792932 4.998961 
-0.042718 0.018161 0.041757 2.453150 2.603880 5.077169 
-0.041827 0.018159 0.041279 2.786304 2.500656 4.985981 
-0.050045 0.019660 0.048778 4.443120 2.828022 3.421017 
-0.031279 0.018060 0.030224 5.459977 1.366250 2.723448 
0.068798 -0.047957 0.030876 2.480451 1.381292 5.566328 
0.069697 -0.047936 0.030432 2.896036 1.188493 5.407445 
0.070566 -0.047930 0.029932 3.303059 0.888546 5.220616 
0.071369 -0.047922 0.029337 3.760790 0.651645 4.985025 
0.072162 -0.047924 0.028729 4.189201 0.442748 4.598474 
0.072875 -0.047936 0.027997 4.580142 0.125003 4.264926 
0.073558 -0.047957 0.027197 4.821744 -0.111301 4.011229 
0.074216 -0.047975 0.026410 5.049417 -0.208331 3.637813 
0.074791 -0.048007 0.025474 5.349497 -0.241912 3.265011 
0.075345 -0.048041 0.024524 5.491892 -0.178659 3.026406 
0.075819 -0.048021 0.023597 5.722039 -0.078622 2.552700 
-0.037328 0.026567 0.031979 4.069502 3.062726 3.662889 
-0.046205 0.003709 0.040092 4.036224 -3.736437 3.028235 
-0.027901 0.039019 0.008582 3.911705 -2.316019 4.293665 
-0.011711 0.049422 0.002232 1.832387 2.102730 4.313229 
0.041440 -0.011962 0.046057 3.496899 2.706365 4.462709 
0.000257 0.049754 -0.008288 2.898675 -5.202854 0.964484 
-0.048141 0.003985 0.044504 4.425016 -4.038494 1.839195 
0.052538 -0.013353 0.037552 4.864048 2.219405 3.266180 
-0.047674 0.011255 0.050462 5.349091 0.408530 3.184658 
-0.052531 0.026748 0.048724 3.906372 1.479877 4.656545 
-0.007382 0.065536 -0.010800 4.286150 -0.856717 4.480748 
-0.006371 0.055190 -0.007648 1.840146 4.089425 4.395603 
0.025474 0.004904 0.040538 2.029834 2.630661 5.328931 
-0.041552 0.036611 0.034719 5.260217 -0.540099 3.109573 
-0.053367 0.031003 0.047553 0.000000 0.000000 0.000000 
0.058551 -0.014390 -0.002268 5.711147 1.396381 -2.213129 
-0.048259 0.005575 0.047903 4.839246 -3.391328 2.075596 
0.027038 0.006268 0.039276 1.610042 2.754332 5.402159 
0.003495 0.058188 -0.014443 2.300474 3.877229 4.373127 
-0.011297 0.061077 -0.007705 4.050645 0.034709 4.748177 
0.050908 -0.011997 0.038683 4.097348 2.603424 3.960592 
0.001482 0.061097 -0.015611 2.670623 2.915111 4.880787 
-0.036527 0.032982 0.026928 5.769766 1.632257 1.820139 
-0.036816 0.006714 0.036136 3.759140 -1.437432 4.691561 
0.001755 0.052431 -0.008153 0.000000 0.000000 0.000000 
0.006308 0.068490 -0.024369 5.319139 2.027699 2.653340 
-0.010072 0.069955 -0.005863 0.000000 0.000000 0.000000 
-0.013384 0.052301 -0.001941 1.152600 4.697128 3.958097 
-0.016565 0.049323 0.003954 1.243634 3.875754 4.154055 
0.050227 -0.006712 0.035919 4.198427 2.577125 3.898055 
-0.046523 0.032331 0.039839 4.411086 -0.289306 4.445480 
-0.051992 0.022496 0.049479 4.519987 1.590946 4.054168 
0.056373 -0.004588 0.023699 5.619544 2.562142 1.114302 
-0.037726 0.027996 0.031377 4.657228 1.798339 3.700389 
-0.051193 0.032412 0.045406 3.718441 2.156280 4.557474 
-0.053591 0.028166 0.048970 3.154923 1.999695 5.035656 
-0.043767 0.008155 0.041913 3.224826 -2.960639 4.474472 
0.022484 -0.000585 0.043193 2.131313 0.312756 5.857439 
-0.022436 0.043443 0.006006 3.427191 -2.218691 4.775400 
-0.052769 0.028162 0.048389 3.654490 1.712909 4.809893 
-0.074853 0.013899 0.008814 -5.312521 0.215099 -3.306369 
0.000587 0.072955 -0.018552 4.823282 0.079677 4.024327 
-0.046678 0.049697 -0.051055 5.773836 -2.472134 0.000967 
0.015489 -0.008818 0.045939 0.000000 0.000000 0.000000 
0.023764 -0.047117 0.057125 0.000000 0.000000 0.000000 
0.024774 -0.047080 0.056833 0.000000 0.000000 0.000000 
0.025741 -0.047060 0.056498 2.387659 -1.211500 5.529467 
0.026640 -0.047045 0.056049 3.218605 -1.311379 4.983412 
0.027410 -0.047078 0.055409 4.245272 -1.507119 4.078895 
0.028028 -0.047127 0.054478 4.305408 -1.867689 4.118905 
0.028756 -0.047109 0.053833 2.923708 -2.287086 4.885980 
0.029775 -0.047075 0.053551 1.834941 -2.656709 5.371107 
0.030733 -0.047054 0.053184 2.335826 -2.651443 5.174198 
0.031622 -0.047039 0.052709 2.772782 -2.423543 5.090052 
0.032504 -0.047016 0.052224 2.915192 -2.046203 5.171538 
0.033390 -0.047000 0.051743 3.183144 -1.531977 5.180074 
0.034220 -0.046996 0.051190 3.293983 -1.302423 5.188558 
0.035062 -0.046993 0.050660 3.487120 -1.076266 5.100401 
0.035829 -0.046998 0.050014 3.377971 -0.632211 5.080328 
0.036729 -0.046979 0.049556 2.689593 0.108275 5.588617 
0.037659 -0.046956 0.049137 2.812261 0.873191 5.527214 
0.038558 -0.046945 0.048673 2.991880 1.213896 5.386893 
0.039421 -0.046933 0.048166 3.506228 1.073368 5.083582 
0.040220 -0.046933 0.047558 3.970896 0.770710 4.786446 
0.040977 -0.046939 0.046890 3.546153 0.317072 5.138955 
0.041854 -0.046929 0.046414 2.690475 0.162211 5.669580 
0.042797 -0.046905 0.046021 2.469794 0.282840 5.765345 
0.043740 -0.046883 0.045620 2.723602 0.195556 5.637443 
0.044622 -0.046870 0.045142 3.355102 -0.022483 5.270694 
0.045412 -0.046877 0.044527 4.029872 -0.366391 4.798410 
0.046161 -0.046881 0.043850 4.263381 -0.673373 4.560022 
0.046898 -0.046882 0.043157 3.859447 -0.804108 4.872887 
0.047730 -0.046877 0.042596 3.238809 -0.571257 5.346226 
0.048594 -0.046877 0.042110 2.715114 -0.330976 5.638648 
0.049560 -0.046856 0.041742 2.656073 -0.385665 5.648506 
0.050437 -0.046843 0.041284 3.290435 -0.617537 5.251691 
0.051251 -0.046837 0.040662 3.969207 -0.776638 4.787212 
0.051990 -0.046837 0.039979 4.386966 -0.943415 4.379545 
0.052680 -0.046851 0.039226 4.732553 -1.116585 3.958040 
0.053310 -0.046874 0.038381 4.926913 -1.190463 3.711424 
0.053939 -0.046896 0.037536 4.986278 -1.192434 3.628920 
0.054559 -0.046940 0.036636 5.097353 -1.092652 3.505598 
0.055151 -0.046951 0.035762 5.138633 -1.219378 3.389868 
0.055748 -0.046991 0.034840 5.160633 -1.570433 3.186074 
0.056304 -0.047022 0.033896 5.405846 -1.613399 2.625787 
0.056731 -0.047094 0.032737 5.633806 -1.244215 2.465610 
0.057235 -0.047162 0.031686 5.480167 -0.604835 3.000456 
0.052510 -0.001992 -0.003284 0.000000 0.000000 0.000000 
0.054067 -0.001886 0.000703 5.175937 2.837114 -2.104869 
0.004901 0.061168 -0.017675 3.118738 3.186102 4.425154 
-0.044114 0.025138 0.037990 2.146080 3.590065 4.681173 
-0.045019 0.025121 0.038443 2.850703 3.260382 4.477887 
-0.045829 0.025136 0.039028 3.749910 2.661272 4.133205 
-0.046545 0.025156 0.039729 4.456561 1.985438 3.659724 
-0.047140 0.025173 0.040614 5.136378 1.263102 3.206311 
0.036334 -0.002845 0.042185 0.000000 0.000000 0.000000 
0.068531 -0.046654 0.030498 1.865987 2.437114 5.454632 
0.069480 -0.046632 0.030117 2.360553 2.148646 5.382538 
0.070377 -0.046611 0.029661 2.734419 1.882109 5.322507 
0.071263 -0.046597 0.029189 3.269511 1.466867 5.088643 
0.072059 -0.046589 0.028578 3.953444 1.102105 4.725646 
0.072816 -0.046600 0.027912 4.259398 0.896506 4.488795 
0.073530 -0.046609 0.027173 4.700699 0.690562 4.051928 
0.074180 -0.046635 0.026339 5.022644 0.601897 3.694095 
0.074776 -0.046665 0.025460 5.282107 0.420744 3.351944 
0.075338 -0.046699 0.024518 5.462694 0.299948 3.065166 
-0.047670 0.025194 0.041600 5.475077 0.653321 2.957668 
-0.051523 0.033807 0.044939 3.060214 2.802648 4.637856 
0.055604 -0.005534 0.027805 0.000000 0.000000 0.000000 
-0.035975 0.022385 0.033923 3.904181 2.688948 4.122900 
-0.027171 0.039029 0.007885 3.937550 -2.482438 4.194408 
0.005713 0.056774 -0.014699 4.179888 2.337215 3.697865 
-0.012183 -0.018297 -0.025065 -4.699744 3.436275 -2.334113 
-0.000320 0.049634 -0.007494 3.421453 -4.918301 1.208054 
0.001056 0.062594 -0.016209 2.962064 2.304597 5.013860 
0.014499 -0.009024 0.045713 -0.452698 3.712031 3.541795 
-0.041531 0.027989 0.034694 3.068649 1.628544 5.152246 
-0.006619 0.065536 -0.011462 4.111112 -0.380822 4.733001 
-0.007330 0.055209 -0.007268 1.886706 4.046405 4.412276 
0.024564 0.004869 0.040947 2.066723 2.619815 5.303879 
-0.041992 0.036663 0.035959 5.808169 -0.930372 2.205506 
-0.052492 0.030987 0.047049 3.201908 2.339365 4.838774 
-0.051515 0.023902 0.048397 4.694339 1.151269 4.010924 
-0.047385 0.005481 0.045641 4.918065 -3.368159 1.893499 
0.026069 0.006238 0.039620 1.799267 2.812413 5.322505 
0.002595 0.058167 -0.014002 2.013355 3.980154 4.419783 
-0.028335 0.037536 0.007935 3.888984 -3.366555 3.570127 
-0.071766 0.002911 0.008791 -3.970950 -4.196281 -2.461727 
0.033673 -0.017456 0.050608 4.624186 2.009133 3.736523 
-0.051980 0.035197 0.044278 0.000000 0.000000 0.000000 
-0.036964 -0.061517 0.039804 0.000000 0.000000 0.000000 
0.002497 0.052392 -0.008895 0.000000 0.000000 0.000000 
0.048009 -0.015909 0.043240 3.591742 1.784346 4.829797 
0.038031 0.003840 0.037635 2.597135 2.656192 5.059676 
-0.016295 0.052245 -0.000901 1.713617 4.120905 4.390064 
-0.014561 0.049348 0.003347 1.529274 3.080480 4.206320 
0.056378 -0.009532 0.028925 0.000000 0.000000 0.000000 
-0.044119 0.032343 0.038037 3.660072 -1.619392 4.765265 
-0.052720 0.022511 0.050184 4.140993 1.497897 4.479056 
0.055918 -0.004589 0.025709 5.550331 2.548251 1.457183 
-0.028987 0.015144 0.026303 5.330997 1.336193 2.980399 
0.052262 -0.009391 0.035377 4.712386 2.292825 3.453482 
-0.039017 0.025174 0.034821 3.513882 3.168824 4.125235 
-0.000274 0.051059 -0.005812 4.251595 0.158997 3.637782 
-0.033810 0.040552 0.014105 4.835477 1.682285 3.597714 
0.055912 -0.001748 0.014704 5.342529 3.287759 0.336166 
-0.065013 -0.016421 -0.006024 -4.903796 0.822524 -3.816879 
-0.034170 0.039112 0.015369 5.647206 0.734147 2.602470 
-0.063930 -0.004207 -0.003053 -4.426950 2.077543 -3.927358 
0.002121 0.074450 -0.021672 5.606381 1.912814 2.038598 
0.037754 -0.008070 0.045989 2.673438 3.218296 4.678046 
0.035837 -0.005482 0.044971 2.025994 3.866721 4.516296 
0.027981 -0.004296 -0.018372 1.735909 1.157960 -5.901091 
0.025787 -0.045710 0.056566 0.000000 0.000000 0.000000 
0.026672 -0.045692 0.056091 3.259801 -0.082476 5.314789 
0.027456 -0.045700 0.055475 4.004423 -0.415736 4.811484 
0.028183 -0.045717 0.054772 3.636928 -1.176692 4.874036 
0.029079 -0.045717 0.054323 2.066924 -2.057544 5.519265 
0.030131 -0.045662 0.054079 1.843259 -2.335833 5.510078 
0.031084 -0.045639 0.053696 2.722073 -2.096938 5.208360 
0.031956 -0.045651 0.053192 3.309655 -1.650854 4.984407 
0.032732 -0.045667 0.052567 3.701741 -1.322155 4.890033 
0.033531 -0.045650 0.051962 3.501901 -1.158415 5.080506 
0.034386 -0.045621 0.051439 3.249606 -1.215778 5.236757 
0.035236 -0.045625 0.050915 3.442072 -1.353100 5.062013 
0.036016 -0.045631 0.050284 3.841747 -1.448009 4.742162 
0.036771 -0.045633 0.049615 3.659634 -0.892475 4.898868 
0.037598 -0.045625 0.049055 3.575155 -0.357475 5.071249 
0.038438 -0.045617 0.048512 3.352457 0.189929 5.275290 
0.039277 -0.045608 0.047964 3.592584 0.628906 5.099282 
0.040096 -0.045603 0.047390 3.600543 0.658684 5.101810 
0.040929 -0.045599 0.046834 3.204820 0.440938 5.379519 
0.041822 -0.045587 0.046369 2.808724 0.487459 5.597518 
0.042718 -0.045571 0.045916 2.524065 0.542160 5.718341 
0.043701 -0.045545 0.045561 2.542394 0.547527 5.682566 
0.044568 -0.045536 0.045079 3.092341 0.491662 5.444797 
0.045436 -0.045522 0.044568 3.578208 0.187713 5.122827 
0.046216 -0.045527 0.043939 4.037914 -0.196465 4.797575 
0.046967 -0.045534 0.043266 3.942214 -0.393610 4.868926 
0.047783 -0.045529 0.042678 3.468309 -0.272922 5.228757 
0.048620 -0.045380 0.042164 2.880635 -0.191811 5.561827 
0.049566 -0.045502 0.041747 2.618761 -0.032283 5.709805 
0.050490 -0.045490 0.041338 3.037951 -0.042884 5.438112 
0.051334 -0.045475 0.040794 3.734363 -0.290913 4.965998 
0.052072 -0.045490 0.040101 4.325093 -0.503445 4.524535 
0.052795 -0.045491 0.039402 4.594545 -0.569929 4.205712 
0.053452 -0.045519 0.038581 4.910044 -0.759954 3.833037 
0.054093 -0.045543 0.037743 4.998100 -0.823258 3.698041 
0.054698 -0.045562 0.036877 5.144740 -0.950324 3.464691 
0.055270 -0.045596 0.035940 5.135113 -0.987867 3.472432 
0.055896 -0.045615 0.035093 5.129235 -0.951095 3.485749 
0.056479 -0.045652 0.034164 5.537546 -0.930565 2.686036 
0.056891 -0.045707 0.033021 5.870532 -0.779206 2.062242 
0.057296 -0.045797 0.031787 5.693449 -0.552833 2.562624 
0.057829 -0.045844 0.030806 5.067763 0.138298 3.600195 
0.058514 -0.045874 0.030029 4.072037 0.841555 4.617104 
0.059308 -0.045867 0.029416 2.311285 1.932170 5.123525 
0.042206 -0.002746 0.040113 2.187282 1.726505 5.601372 
-0.048833 0.028088 0.043507 5.430565 0.413600 3.131472 
-0.048274 0.028070 0.042535 5.460657 0.221137 3.097794 
-0.047720 0.028050 0.041557 5.533664 0.075865 2.972036 
-0.047216 0.028028 0.040556 5.673437 -0.099251 2.693415 
-0.046740 0.028004 0.039472 5.621738 -0.165067 2.764917 
0.043163 -0.002733 0.039744 2.313341 1.633919 5.552278 
